# 3D point list with one line of data per point:
#   POINT3D_ID, X, Y, Z, R, G, B, ERROR, TRACK[] as (IMAGE_ID, POINT2D_IDX)
# Number of points: 249, mean track length: 17.948106408072338
11826 1.4623799013205905 -1.4629764398605016 35.226033202565517 69 65 64 1.2423896170900635 61 851 70 513 77 308 60 921 63 854 64 816 66 769 67 726 59 913 78 323 79 319 80 317 81 286 82 270 85 248 84 255 86 262 87 252 88 241 89 264 90 292 68 695 69 609 71 532 72 495 73 465 75 400 76 364
8412 -6.1378363979453896 -0.46523393880101604 41.739305527340598 32 35 14 1.6656706494876385 10 3319 22 5087 7 3575 8 3435 9 3463 25 3495 5 3560 33 5110 6 3458 17 4820 4 3673 16 1284 15 3503 20 5027 14 3570 13 4998 12 3436 11 3463 21 5035
8413 -6.8859429208876097 -0.41797489522491127 45.035038627604592 51 55 32 1.4267807682472395 10 4845 18 4911 19 4926 23 4951 17 4824 1 5291 4 5090 20 5032 22 5090 32 5044 2 5188 21 5039 33 5113 38 3511 16 4986 15 5046 14 5097 13 5004
8414 -7.4635284231980581 0.04718994219985375 44.831782826993148 48 52 25 1.2720667550746383 8 4870 18 6016 19 6027 20 5071 17 4861 6 4882 7 5120 21 5083 23 4991 22 5137 24 5184 25 5102 16 5033 15 5102 10 4894 4 5132 14 5134 13 5049 12 4904 11 4971
8416 0.18612194277851732 0.20713152751897246 25.042837261699024 252 255 230 1.2778090471807824 1 4049 8 1638 18 5043 17 4959 2 5331 3 5339 4 5236 5 3774 6 1659 7 3819 9 5093 10 4999 16 3711 15 5190 14 5228 13 5140 12 4995 11 5076
15728 4.4547753255400186 2.3423072888600975 33.445299885345655 211 217 192 1.6589968889969464 58 1923 90 1129 57 2029 61 1963 62 1844 67 1770 97 1822 91 1855 92 1819 94 1835 95 1746 96 1806 98 1831 99 1771 100 1797
8419 -3.2972065698462023 0.45277247310366125 28.267190031518052 53 55 44 2.1750917119360773 18 5065 19 5084 17 4988 2 3938 3 3968 4 3880 5 3785 15 3702 14 3782 12 3642
8421 0.083503647423836411 0.42880533824105993 24.767101304704013 79 88 61 1.0621872915321577 1 4112 8 3707 18 5085 2 3985 3 4028 7 3891 9 3751 10 5032 16 5166 15 5239 14 5271 13 5187 12 5048 11 5120
9598 4.9441326620436765 -0.015306985824181234 34.098801887185914 212 214 205 0.89965124176641154 7 6110 10 5914 16 5081 22 5161 15 5145 1 5370 14 5196 13 5104
8425 3.4185039678077072 1.6566550022379583 33.645803912652042 0 0 0 0.6892592196439582 10 3844 25 5352 27 5623 28 5465 13 5306
8426 2.7054319958795041 1.7066819555042139 33.245798062865177 238 234 229 1.0021811376071112 8 5110 18 5223 19 5237 17 5151 1 5554 7 5371 9 5230 10 5141 16 5274 15 5353 14 5380 13 5309 12 5165 11 5242
8428 -3.3421023233129228 3.164673718837709 38.637906942755116 225 231 194 1.8826502631734585 19 4030 24 5536 25 5453 26 5487 17 5233 27 5723 28 5574 16 5355
8429 -3.2574861492207905 3.2781425050532489 37.97040375335272 97 108 66 2.2943365248421363 18 5306 19 5334 20 5449 21 5439 22 5509 23 5368 24 5550 25 5464 26 5503 17 5243 16 5363 14 5480 15 5461 27 5737
8430 -5.5210542079303222 4.543689359097268 41.075341779365921 168 175 130 1.8006627686934211 8 5261 10 5277 18 5385 22 5590 23 5443 17 5299 7 5502 9 5372 21 5513 24 6539 6 4076 19 5410 3 4435 4 4330 5 4232 25 6451 2 4391 26 6460 27 6708 1 4534 28 6562 16 6339 15 4226 14 4311 13 4214 29 6451 12 5327 11 5398
9596 3.0126385226298997 -0.036405326266113043 34.264513640199254 95 98 73 0.69362854733637591 6 4937 7 5173 8 4910 9 5037 16 5066 17 4897 18 4982 15 5137 1 5360 2 5287 3 5299 4 5179 5 5083 10 3472 14 5179 13 5088 12 4938 11 5020
8431 -5.5173094733846568 4.5298552032331525 40.937257985170525 168 175 130 1.7433720414273006 10 5278 18 5384 19 5409 20 5519 21 5512 22 5589 23 5442 17 5300 7 5503 8 5262 24 6540 6 4077 3 4436 4 4329 5 4233 2 4392 25 6452 26 6461 1 4533 27 6709 28 6563 16 6338 15 4225 14 4310 13 4213 12 5328 11 5399
8432 -6.6992294615686667 4.3489398060120363 35.817400517887116 0 0 0 1.5825831503171151 18 5417 19 5434 20 5548 21 5539 22 5615 23 5471 24 5639 25 5560 26 5595 27 5825 28 5675
8436 -0.84451853118917497 -3.0579937117281526 26.911178146076178 170 188 144 1.2128784390563576 18 5638 20 4578 21 4561 22 2798 23 2696 17 5551 24 2760 25 294 16 6512 15 6586 14 6682 13 6572 12 6423 11 6483
8440 -4.2529264127642348 -0.99552069389014308 28.894991080302624 156 165 148 2.1325278748947656 1 5223 17 5823 2 3590 4 3553 3 3601 5 4927 6 3368 7 3488 8 3350 9 3360 10 3210 16 5938 14 6064 13 5952 15 6012 12 4761
8441 -6.4757248880806584 -0.47609126193556661 42.915274276330457 49 54 29 1.4876342855448408 10 6681 18 5972 19 5989 21 5033 22 5083 23 4943 17 5905 5 6884 6 6696 7 6913 8 6670 9 6773 20 6087 24 5128 25 5036 20 5021 28 3551 29 3547 30 3488 32 3492 34 1266 2 7063 3 7062 4 6982 1 7127 16 6006 15 6080 14 6145 13 6021 12 5869 11 6776
8443 3.2463398130456453 -0.064925220052173147 33.733745619910124 57 63 32 1.6256861925862889 18 4985 22 6238 17 5968 7 5169 8 4908 1 5358 3 6224 5 5082 6 4933 4 6140 16 6057 10 5903 15 5135 16 5067 14 5181 13 5087 12 4937 11 5015 11 6004 12 5934
8444 -0.83768268967478055 0.11837472832228267 25.445235684505739 61 61 44 1.3568469788888795 8 5876 17 5989 10 4964 11 5041 12 4962
8446 -0.22179674593836537 1.0682217059286021 24.9208287242536 75 82 38 1.3135562079122654 1 6447 8 5985 18 6157 2 6364 3 6341 4 6264 5 6170 6 6028 7 6216 9 6094 10 6027 17 6118 16 6190 15 6264 14 6328 13 6221 12 6073
8447 3.9273988394186814 1.468579299373592 33.888398475623084 66 73 53 1.54623967748108 8 5989 21 6271 23 6235 26 6305 2 6368 3 6350 4 5347 28 6407 34 6261 35 6354 42 6326 36 6190 37 6164 33 6300 38 6245 41 6264 43 6198 17 6120 16 6195 13 6226 14 7171
8880 -0.58254781774597675 -2.0628172650063803 28.328505985255877 143 147 127 1.9057295894706523 17 5704 18 6602 16 5826 5 3203 8 4616
8449 -5.1778276607593261 3.168112569200666 38.446744118230995 66 75 45 1.5527342686532852 8 5183 10 5210 18 6267 19 5322 20 5432 21 5423 22 5489 23 5351 24 5533 2 5532 3 5536 4 5441 5 5339 6 5214 7 5439 9 5304 18 5299 17 6213 25 5450 26 5485 1 5624 27 5725 28 5573 16 5354 15 5450 14 5466 12 5259 11 5321
9906 3.3791515259317393 1.793027955593449 33.770553216538403 242 237 224 1.6793320875244402 10 6049 20 6312 23 6260 19 7014 15 2030 23 1826 24 1816 25 1885 37 3890 21 3979 32 1877 34 3941 35 1864 36 1938 42 2013 43 1887 44 1944 46 1875 47 1901 49 1922 20 1927 18 1942 11 6163
8451 3.4490864861486266 -4.3882410257371642 31.340781245485317 101 119 91 1.8083977357589807 1 5890 20 6547 17 6363 16 6434
8452 3.4490864861486266 -4.3882410257371642 31.340781245485317 101 119 91 1.8083977357589807 1 5891 20 6548 17 6364 16 6435
8453 -1.2081627799057164 -2.4278915222907291 25.390397214107988 252 255 253 2.1608224326353516 18 6538 19 7341 17 6493 21 7422 29 6655 28 6769 27 6920 24 8140 23 8041 30 6610 21 8001 26 6687
8457 -0.92423843214127177 -1.7382352084524442 25.956147036834434 182 193 163 0.73990182749165323 20 6771 24 6856 17 6591 16 6663 8 6535 1 7022 3 6928 4 6854 5 6764 6 6573 7 6787 15 6741 13 6723 12 6593
9914 -3.6339829352016246 3.7277344809440458 37.011476563129271 58 74 37 1.3460098328253733 16 4197 17 4020 18 4099 19 4107 20 4201 21 4178 22 4239 23 4099 15 2335 24 4268 25 4189
8459 -1.084227687329252 -1.6050415251454739 35.902903262755153 113 108 53 1.0579462461938207 8 6589 9 6707 10 6624 18 6684 19 6727 20 6822 21 6778 17 6663 4 6902 7 6847 22 6066 23 5913 5 6808 6 6620 16 6733 15 5991 14 6892 13 6788 12 6645 11 6701
15491 -0.74349492647458326 -1.4528176515048274 26.874681932965625 72 75 56 0.93652209986612911 92 144 94 163 97 199
8464 5.864556469966149 0.26262269407912109 34.298680693136731 51 58 40 1.5708070793396645 33 6989 17 6840 26 7020 30 6924
8465 7.3233029477314391 0.57447755715898363 33.301503953215821 115 119 86 1.122597260375342 26 7064 17 6878 27 7301
8476 -1.58562421335674 -2.5037430115153709 26.314744152755342 60 65 45 1.7464048637666114 18 7297 49 7281 17 7288 24 7565 20 6663 28 7597
8477 -1.2078747580856868 -1.7705742954525405 25.696908237765687 229 234 234 1.3047968562915901 22 7641 23 7499 24 8177 17 7355 16 7421
8478 -1.0233734229101963 -1.6780128288951903 26.084682367291496 37 40 25 1.4898759351965218 1 7868 18 7360 19 6680 17 7363 2 7828 3 7814 4 7716 5 7603 6 7440 7 7601 8 7344 20 6777 21 5891 9 7430 22 5989 23 5851 24 5994 15 8031 9 7967 14 8105 13 8039 11 7958
8479 -1.2183577494303697 -1.3931093726493193 26.063658951134972 55 67 15 0.65758821984020432 8 7364 17 7391 7 6832 1 7056 4 6895 5 6798 6 7454 3 6968 16 7467 15 7526 14 7597 13 7529
8480 -1.2372168448735335 -1.3823575343575534 25.849702863397766 55 67 15 1.2740042743710254 18 7390 19 7429 20 7575 22 7682 23 7540 17 7392 24 7651 16 7468 10 7387 8 7363 1 7055 2 7854 3 6967 4 6896 5 6799 6 7455 7 6833 9 7462 15 7527 14 7598 13 7530 12 7375 11 7458
8483 -0.36056801012023926 -1.1409008232982729 27.021125708220069 69 77 54 1.5747839559859833 8 6611 17 7412 6 5769 9 6718 16 7490 15 7546 14 6914 13 6804 12 6659 3 6099 11 6713
11862 3.3247371966240649 -2.1388467033861334 34.566446472954489 235 252 255 1.4441151451147571 61 3021 70 2457 77 1993 52 3099 53 692 54 3106 55 720 57 727 58 2919 59 3010 60 2977 62 2831 63 648 64 609 65 2729 67 2769 79 125 80 110 81 101 82 2067 83 1981 85 3266 68 2632 72 291 73 271 76 166
8487 -5.5053854800232713 0.76398358772806452 43.195823304488329 53 62 35 0.84390623190604053 1 8022 2 7983 3 7960 4 7857 5 7748 6 7582 8 7483 7 7738 9 7599 17 7515 10 7525 16 7598 15 7655 14 7721 13 7663 12 7515 11 7592
8489 7.162985126295939 0.4224721035522 33.450731002962065 93 99 72 1.4581591132927669 18 7509 19 7573 20 7710 21 7657 24 7780 33 7728 17 7525 32 7681 34 7659
8796 3.958358884950254 2.4574854555644023 32.917853313630907 49 53 38 1.7480598365819875 23 3969 25 4081 16 4101 30 4092 29 4102 14 4172
8493 -0.24996255648685639 0.95055104141672908 23.302835983218401 103 120 104 1.8838222655913153 23 7051 25 7078 17 7571 16 7646
8494 -6.2084404441467358 1.77672952049105 31.323569114312889 51 66 37 1.4911579857924437 18 7583 19 7648 17 7592 9 7679 20 7774 21 7723 22 7887 10 7592 16 7673 15 7742 14 7799 13 7744 12 7590 11 7667
8495 4.2601792677861559 2.1693365700572449 33.76782596026942 110 122 74 1.1881753017936516 1 8147 18 7603 19 7677 20 7802 21 7745 22 7908 23 7773 17 7616 24 7886 16 7700 12 7625 11 7697
11229 0.304882863794813 0.70379844013619008 25.2445953598308 75 85 46 1.6151589848569923 9 1836 12 1761 18 1747 11 1751 16 1788 15 1814 14 1828
8499 -0.98697050514876483 -2.971197945270867 27.295137463438603 167 184 152 1.2951484218118481 25 8013 17 7847 26 8083 15 7977 6 7907 7 8072 5 8064 27 8258
8504 6.4999682773977847 0.50502911886718405 34.964293060131816 117 116 96 1.5345936853879847 9 8066 10 7971 22 8544 23 8416 12 8251 11 8280
15541 3.8206543281549328 2.832808231927749 32.856806759201255 150 160 126 0.73958006911433805 91 1924 97 924 99 863 96 841 98 878
8506 7.8327827817120612 1.5380689155579472 36.447126440301957 0 0 0 2.1157477087786711 10 8004 25 8193 26 8260 9 8091
9898 -0.73449814632774268 -0.5621141829292341 25.774911877081088 158 179 200 1.9895595960207137 7 8560 8 8319 9 8421 18 8423 19 8464 20 8577 21 8575 15 8564 5 8563
8507 4.3326834798175318 2.156407550050544 33.183591044893156 0 0 0 1.6478564710738401 1 8558 20 8199 21 7751
8508 7.3406994787005404 2.0345960890563011 32.570866192412389 139 136 69 1.0985882816621939 18 8058 25 7778 17 8037 27 8033 28 7899
8509 5.1605706531341742 2.9131009558414318 33.551261980829885 251 252 236 1.6549240463213677 9 8132 10 8041 22 8371 23 8241 24 8351 41 7818 21 8213 36 7773 46 7816 45 7698 47 8151 48 7756 11 8121 12 8066 13 8208 45 8066 40 7936
16046 -2.5006612098141563 4.9126214712850365 34.196259072149921 92 96 63 2.9742007131117001 94 5056 98 5067
15321 -2.0237063512647384 5.9740222068065378 40.281623808145397 67 74 41 1.3930969985031729 96 2888 87 3951
8511 3.3356258321164143 -1.2864161182020175 35.331566062141583 253 253 254 1.9802948521943018 1 8704 20 8499 21 8503 22 8650 23 8530 24 8620 25 8524 17 8196 2 8624 3 8630 6 8274 4 8484 5 8401
8513 -1.138981521343283 -0.43010114437220892 24.571003564718517 57 62 39 1.3219361754558354 19 8255 20 8361 21 8360 22 8512 23 8380 17 8209 16 8248 15 8345 6 8427 3 8646 4 8504
8515 -4.8732134682772443 0.79127523771379304 41.267839601632261 48 57 28 1.6890863725814678 10 8213 18 8245 19 8280 22 8542 17 8239 4 8525 2 8665 16 8280 15 8374 14 8434 13 8366
9463 -0.29431500504939168 -0.22242615015679051 25.313724560892688 217 217 210 1.7200249687750309 7 3689 19 3465 20 3526 15 1450 1 1654 2 1600 3 1645 5 1541 6 3545 8 3537 9 5002 22 3539 21 1348 23 3420 10 4908
8516 -4.6928130166231306 0.90985740481266963 42.475152288102223 47 52 30 0.99689664316685433 10 8214 18 8248 19 8284 20 8395 21 8393 23 8551 24 8643 17 8240 1 8737 2 8670 5 8447 6 8309 7 8443 8 8194 9 8297 25 8548 16 8281 15 8376 14 8435 13 8367 12 8243 11 8270
8519 0.20128022547375984 -0.24671675987295119 25.581450829396946 51 59 38 1.3922808199544061 1 8720 17 8347 2 8646 3 8656
8520 0.32084861263379394 -0.027574660290704947 25.796566151068916 211 221 191 1.6152870922986431 1 8724 2 8654 3 8664 17 8353 16 8413
8521 -7.3763266755866201 3.1616222372175007 35.127900875243562 63 65 54 1.7856929391592835 49 8394 16 8448 50 8347
9471 3.2420992821574171 0.068764680459598354 33.915182910940651 184 191 148 0.90768963868806807 9 1597 10 1538 19 1419 15 1556 4 1632 5 1645 20 3620 11 1524
8524 0.30227699007846121 -0.60434873093728436 26.726541791805367 132 134 134 1.9411537238562595 18 8424 22 8733 23 8616 24 8712 17 8420 16 8397
8956 -2.2994054812581699 -2.1606619233688455 44.452114581474085 62 69 50 1.9763129073125023 17 6636 18 6667 19 6712 20 6808 21 6765 22 6903 23 6760 16 6703 24 6893 25 6799 26 6829 27 7061 28 6893 29 6781 30 6738 32 6739 15 5965 31 6783 33 6794 34 6754 14 6862
8526 -0.42994889501882461 -0.37941775444669479 24.86462100484351 55 63 36 0.97002195632288857 1 8936 18 8429 19 8467 20 8579 21 8578 22 8736 23 8620 17 8426 16 8486 15 8568 14 8634
15555 1.9635018064131009 -1.7095750882580731 34.633623107494429 255 255 253 0.83886925566162251 88 1919 89 1989 90 1837 97 1284 79 2244 80 2176 82 2145 83 2064 87 2026 63 2955 64 2908 66 2995 67 2860 72 2431 73 2316
8737 7.9956211612554755 -2.2702296227555085 28.313479188397956 0 0 0 2.1549555467928263 19 701 32 619 33 611
8528 -6.5411372528232068 4.4924810400277053 37.328118748549848 66 67 46 2.0620652549643004 18 2336 49 2408 28 2406 60 2323 61 2355 27 2471 26 2318 25 2309 23 2225 22 2344 21 2382 20 2336 19 2283 17 2224 47 2375 48 2394 68 2095 69 1906 70 1901 50 2322
8896 -5.4526131186210192 0.25810176269064355 41.062082529924467 72 75 53 1.0123692040034356 10 4927 17 5974 18 6042 19 6048 20 6984 21 6925 22 7076 16 6061 8 4892 23 6928 15 6131 14 6203 13 6079 12 5927
8529 -0.077180313193447286 -2.6174143564055594 29.838521636579415 245 255 254 1.1766937915713453 8 728 17 548 6 732 7 766 11 680
9415 -1.7679707433245579 -4.2553146313171384 27.635310705066324 152 161 134 0.49983863916066135 6 217 10 130 17 28 18 21 19 16 15 76
8741 1.6473127760133388 -2.3348158952487705 35.178596434794407 88 84 80 0.53729128062192799 25 3083 16 3173 27 3242 28 3174 29 3166
8532 -7.1703259945816074 5.0981934669922238 36.598567838389769 169 178 149 1.3379662718123839 18 2461 19 2407 20 2455 21 2506 22 2463 23 2353 24 2432 25 2453 17 2340 26 2456 16 2499
8533 1.1046069085869528 -0.9898330569293311 28.818257955449639 130 136 115 2.2301039884788221 8 3382 17 3217 3 3639 4 3599 5 3493 2 3627 15 3403 20 3332 14 3462 1 3753
8535 -5.3993793590608812 4.4933951508465402 38.091856206354301 255 255 230 1.9846301597211693 18 4151 19 2264 20 2322 21 2375 22 2327 23 2215 24 4342 25 4264 17 4068 27 4457 29 5547 25 5550 16 4262 14 5560 15 5522
8745 -3.9737443688261727 -2.2342895234320661 45.788918648034958 240 251 253 2.1430413908626971 17 3064 18 4716 19 4754 20 4854 21 4837 22 3185 23 3084 25 3174 16 3267 26 4853 24 4930 27 5103 28 4958 29 4883 31 4884 15 3234 33 4889 41 4819 47 4802 48 4794 42 4958 43 4767 44 4840 40 5007 46 4809 50 4673 45 4717
8536 -5.4705805983937283 4.6897197558526713 39.609045272580069 255 255 230 1.9619703525613041 17 4069 16 4263 14 5559 13 5475 12 5339 11 6293 30 4279 9 6263 10 6179 12 6238 8 5284 32 2312 7 5526 6 4108 31 4292 34 4222 36 2352 33 2419 35 2329
8904 -5.4837656737187341 1.2234934704645211 43.734088987500094 152 159 125 1.2513445889175387 17 6052 18 6099 24 6322 25 6224 16 6139 26 6253 15 6188 14 6268 13 6159 12 6008 7 5269 8 5021 6 5038 3 4035 2 3996 11 5131
8538 -6.5203928447313704 4.2538007099978374 38.231509489408367 47 55 34 1.6868810636657834 18 5383 20 5516 25 5530 17 5301 23 4145 26 5572 27 4425 28 4314 29 2356 16 4243
11304 -0.67504717423364324 -1.3864520897221286 25.323773338255993 91 93 84 0.68136037375159986 2 3505 3 3521 6 4715 7 4942 8 4702 9 4821 10 4705 12 5781 13 5915 14 6029 11 4780 1 3615 4 4974 5 3360
8539 -6.2725705421227413 0.73128932176514194 44.83456313784793 194 199 169 2.1774519511922752 22 7109 23 6958 26 6204 17 6845 21 6163 27 7277 28 7096 30 6941 34 6153 35 7059 32 5177 16 6099 14 7072 13 5138 12 5958 4 5218 3 5328 6 4981 7 5209 8 4953 11 5058 36 6881 5 3751 25 5188
11298 -2.2061946213025809 -2.5512774546967969 36.383940308953157 55 63 42 1.2216412107562047 9 4711 10 4593 12 4578 27 3188 11 4652 4 4858 5 4780 6 4608 7 4843 8 4600 26 3044 1 6086 3 4977 25 3038 23 2938 24 3048 22 3043 21 3055 20 4756 19 5779 2 4956
8541 3.3541323186856129 -1.4691430460435069 36.243215436409884 122 133 154 1.7294018062437888 10 1166 21 4896 3 3594 4 3557 1 5215 2 5105 17 4715 41 932 42 989 43 953 44 989 45 3156 46 955 48 3250 49 3222 40 1004 50 3137 51 857 38 980 37 960 35 916 34 981 33 3391 32 3281 31 3319 30 976 29 965 28 3357 27 988 25 920 24 907 21 985 20 1011 19 3256 18 3276 17 3173 16 3365 15 1133 15 4929 14 1145 14 3414 13 3371
8542 -6.2509307330181612 3.9949886475075389 32.456592630421007 65 68 56 1.7384170023644228 10 2238 18 2347 20 2347 21 2393 17 2236 7 2474 9 2389 8 4137 10 5303 20 5552 21 5550 18 5421 16 2386 15 2421 14 2450 13 2390 12 2364 11 2322 11 5425 6 2382
11421 0.38910688012429168 -4.4823546133199033 27.605965953770973 201 210 182 0.65176441342538982 2 7572 3 7585 4 7477 5 7380 6 7217 10 7155 13 7316 11 7242 1 7634
8547 -3.5732873836520791 -0.28178009168377438 29.858961790018931 68 75 62 2.2505318651803585 24 1186 25 1229 17 1265 26 1209
8548 0.2398481747774325 0.39180439974584391 25.432071632221593 72 79 52 1.0102590069970019 8 1728 17 1554 7 1812 16 1664 15 1681 14 1699 12 1656 11 1637
8550 -6.6676552949057406 3.8898328681241932 33.285257983308398 67 69 50 1.9041481173192736 18 4142 19 4150 20 4249 21 4235 24 2238 25 2283 17 2200 15 4244 14 2417
11926 2.7596126839316035 0.060549347298207025 34.752224283786532 55 53 43 1.2361502963383395 61 6765 70 5872 77 5226 58 6736 59 6862 60 6737 62 6608 63 6616 64 6366 65 6325 66 6481 67 6347 78 5191 79 5420 80 5262 81 5299 82 5204 83 5120 85 5092 84 5143 86 4947 87 5835 88 5656 89 5759 90 5490 91 4311 92 4230 93 4200 94 4326 95 4125 96 4702 98 4647 68 6064 69 5877 99 4502 71 5902 72 5844 73 5751 74 5735 75 5594 76 5483
8551 -1.032654079996641 -2.8170032307716038 26.976348268018391 187 198 168 1.3934954113128626 18 2847 19 2803 20 2862 21 2873 17 2745 16 2905 15 2917 9 2940 4 633 5 647 6 613 7 638 10 2765 8 2919 14 2964 13 2911 12 2887 11 536 22 404 23 347
8556 0.30301294718748262 0.26243283978701243 24.622622511395942 54 63 36 0.94924798859330584 1 5432 8 4982 17 4976 2 5340 3 5347 4 5252 5 5145 6 5007 7 5243 9 5103 10 5006 16 5137 15 5202 14 5239 13 5158 12 5016 11 5088
8558 -0.27733632979414358 1.0976757865430009 24.250016833093976 241 247 220 1.314363842422136 8 3864 17 5132 1 2168 2 4150 3 2149 4 2031 5 3982 6 1986 7 4050 9 3900 10 3810 16 5256 15 3939 14 4030 13 3933 12 3862 12 3863 14 4031 15 3940 11 3878
8561 0.17832353967086489 0.48639739757767492 24.535063503754021 63 70 38 1.2764755508059886 17 6881 30 6171 16 6948 15 7028 14 7102 10 6836 13 7021 8 6809 7 7049 5 7044 6 6849 3 7202 4 7130 1 7267 2 7197 11 6926 31 6236
8562 -0.18139729281128536 0.87629268469789368 25.005421853209157 44 38 35 1.0442092172534545 1 7309 8 6852 17 6914 2 7244 3 7250 4 7169 7 7094 9 6954 10 6875 16 6989 14 7141 13 7052 12 6897 11 6969
9954 -0.85039489577824479 -2.9985481575932149 26.448450989762016 195 212 167 0.71962037147214986 5 542 7 2987 8 540 10 467 15 438 14 449 3 3135 4 3063 6 2865 13 429 12 438 11 465
12006 -0.025788867696739926 -1.4418584005669883 31.06486213044267 81 84 82 1.5394669987316412 62 752 78 285 63 804 64 768 65 688 66 707 81 248 82 230 83 214 85 197 84 214 86 206 68 630 69 542 87 205 73 427
8569 -6.2854467893162242 -1.9488323692938665 36.629596188696077 93 112 56 1.3961284398109974 25 8597 26 8644 17 8410 16 8472 15 8553
9962 -1.1175462564633878 -2.2356248913915029 35.685925201234539 249 254 247 0.66238350128100154 5 952 7 960 8 913 15 860 16 820 17 747 14 858 13 868 12 872 11 894
8571 -0.61635900354358564 -0.57016424506306362 26.163179437825164 184 184 184 1.3787706783340297 49 4932 55 3492 48 4938 54 4981 47 4945 41 4983 40 5184 39 3362 35 5058 34 3405 33 3520 32 4997 31 3452 20 3416 19 3385 8 3438 18 3395 2 3708 3 3731 4 3682 6 3472 7 3582 9 3466 10 3315 17 3308 15 3485 14 3552 13 3476 11 3461 30 3426 21 3445
8572 3.5110456963218577 -4.4438832925958938 31.462319124194035 96 102 91 2.5306137952806296 42 4544 43 4383 44 2592 45 4311 46 4347 10 4325 44 4437 2 4697 3 4717 10 5446 38 2632 37 2541 35 2586 36 2601 34 2622 34 4414 33 4479 32 2610 31 2617 30 2621 29 4443 28 2657 27 2757 47 2529 21 4419 20 5657 19 4360 17 5461 18 4333 4 4602 17 4286 21 5644 1 4816 16 4462 15 2705 15 5675 14 4544 12 4339 11 4401 27 4634 26 2582 25 4433 24 2584 41 4429
8940 7.080870373057766 -3.0127816056327457 36.080723291986459 126 138 102 2.0738735767524585 17 6551 32 6650 16 6626 30 6648 31 6702 33 6707
8573 3.5179980169837077 -4.444882827140197 31.502494532043066 101 107 96 2.4619938012475546 44 2593 10 4326 38 2633 37 2542 35 2587 36 2602 34 2623 33 4480 42 4545 44 4438 45 4310 46 4348 47 2530 10 5447 2 4698 3 5794 3 4718 34 4415 32 2611 31 2618 32 5632 30 2622 29 4444 29 5665 28 2658 27 2758 1 4817 21 4420 20 5658 19 4361 18 5553 17 5460 18 4334 4 4603 21 5645 16 4463 15 2706 15 5674 14 4545 12 4338 24 2585 11 4400 11 5558 27 4635 25 4434 27 5928 26 2583 22 4488
8574 -0.64199344656775259 -0.14029007854721545 25.434972695450739 57 60 44 1.7175895365003511 1 1672 2 1622 3 1659 4 1567 5 3679 6 1513 7 1577 8 1508 10 1455 9 3581 22 1354 24 1267 21 1390 29 1301 20 1381 12 3546 11 3558 28 3621 27 1384
16110 7.4583782923422133 2.1047848450934077 32.132056844871947 75 79 54 1.4850763015114199 94 754 99 809 95 743
8575 0.61648026530409428 -0.59354639293249178 29.106211940238037 210 212 212 1.214499411828071 47 3395 50 3310 54 3425 55 3498 46 3405 44 3439 35 3453 36 3399 34 3425 32 3441 64 3110 31 3470 30 3441 29 3500 28 3514 27 3587 19 3388 18 3397 17 3312 10 3329 2 1469 16 3504 15 3493 14 3566 13 3489 12 3445 11 3474 25 3458
8721 -1.5286074888281149 -3.6298852777457804 27.175457620051606 48 57 35 1.007598551727759 7 2878 8 2756 9 2782 10 2588 16 2711 15 2731 14 2769 13 2722 12 2685 11 2695 19 4383
8576 -1.5686453927265014 -4.3300283027699926 27.432548070639044 255 255 244 0.64899308256146304 8 158 9 135 16 14 7 176 5 2667 6 2609 3 2857 4 2755 10 2421 2 4615 15 37 14 46 13 59 12 64 11 2521
8577 -1.2814433092125834 -4.3192185348874323 27.755746288612702 138 142 127 0.74316364442707539 8 182 17 20 19 12 16 29 15 58
8578 -1.2814433092125834 -4.3192185348874323 27.755746288612702 138 142 127 0.74316364442707539 8 181 17 19 19 11 16 30 15 59
8579 -3.6232097405974164 -4.4811666822633551 30.616419032376903 245 240 234 1.180179365820812 7 218 17 51 18 58 16 63 8 210 9 2645 10 2466 19 48 20 53 21 46 15 103 14 2627 13 2581 12 2558
8580 -1.6934101468684857 -4.0303012592153982 27.931629423654229 137 148 111 1.1833956930753533 8 276 10 212 16 114 1 2954 2 330 4 309 5 302 15 154 14 166 12 169 11 181
8582 1.1938617953736936 -4.4248101460232245 31.338854724968673 86 100 96 1.29667309118553 10 243 17 2510 18 136 19 2556 16 146 3 374 4 328 1 366 2 363 15 191 14 215 13 199 12 211 11 214
8583 1.1938617953736936 -4.4248101460232245 31.338854724968673 86 100 96 1.29667309118553 10 244 17 2511 18 137 19 2557 16 147 2 364 3 375 1 367 4 329 15 192 14 216 13 200 12 212 11 215
8729 -1.0195730126881091 -2.9274691812273987 26.86923329103157 168 181 167 1.072827265540405 7 3013 17 2720 16 2880 4 592 5 3004 6 2899 8 566 15 2889 14 2930 13 2877 12 2857 12 4457
8585 -1.3395247491833473 -3.72264475701318 26.847224660116442 140 152 106 0.46366524904374185 7 337 17 142 16 166 8 331
8586 -1.3089793744754092 -3.5001948192816044 26.250446510866929 40 48 25 0.98419905988020839 7 381 8 374 9 328 10 297 16 209 5 401 6 387 14 263 13 240 12 261 11 274
8587 -1.90649274975245 -3.3384990140155222 26.198589401693972 38 53 48 1.3661490987982516 7 425 16 255 6 427 10 337 15 2766 14 307 13 2764 12 2721 11 2738 14 5732
8588 -1.3834128872036966 -3.3556133748200518 26.351115051278768 70 75 53 1.0612751490335428 7 2914 8 415 17 231 16 265 6 431 9 2826 15 2772 14 2812 13 2770 11 2742
8591 -1.2313761277254602 -3.2982817704294809 26.307493413311313 100 111 78 0.97073248677566104 8 429 23 196 24 220 16 296 6 444 7 450 10 359 12 333 11 342
8801 -3.3703602609750556 3.6435643477940962 38.035749597282276 94 102 63 2.1143771224648442 17 4000 18 5345 19 4086 24 4252 16 4184 23 4073 26 4179 18 4087 22 2220 22 5543 27 5762
8592 0.2116756783697748 -3.4908284021204556 28.060649422646083 40 42 24 1.3293512777456227 32 2713 16 313 31 197 33 2802 34 2731 36 2708 37 2645 38 169 35 167 44 4511 15 350 14 364 13 345 4 455 6 461 7 462 8 450 9 412 10 371 1 3116 2 3031 3 517 5 459 11 2762 42 2792 39 2681 40 2857 43 2655 41 2732
8594 -2.2312011436341308 -4.4565761217364885 39.297928957581441 112 119 103 2.5042354822599959 17 2638 21 282 24 261 25 257 16 342 18 291 20 281 23 237 26 253 27 293 29 269 15 376 14 380
8595 -1.2262671571861254 -3.0005194495926748 26.220790778460341 82 93 61 1.1785879661177452 8 521 10 453 18 354 16 397 7 540 9 499 15 429 12 417 11 445
8805 -2.4202397149247425 4.7632226501616168 36.470564931580945 255 255 250 1.7248324176805512 17 4144 18 4208 19 5475 20 5586 21 4302 22 4358 23 4233 24 4404 16 4323 25 5586 15 5573 14 5607 13 4295
8596 -1.5148737431090926 -2.794987163285886 25.505938177515187 196 207 182 1.6366977304789279 9 533 10 489 17 377 16 424 2 632 14 475 12 458 11 493 4 593
15386 2.221480958216937 -0.8045814993677497 34.318719342201781 71 78 47 0.86848685074112708 92 4181 93 4608 94 4279 95 4080 96 4168 97 4091 100 4060
8597 2.5607884123547455 -3.5106790886815946 31.49116191317388 98 111 126 1.9518193124411325 17 373 18 386 19 359 16 429 4 565 12 473 11 508
11879 2.3582871662602973 -0.79192194939543814 34.285086185564239 255 255 250 0.8648921303572924 61 3311 70 2749 77 2270 52 1117 53 1083 54 1094 55 1147 56 1112 57 1119 58 3246 59 3317 60 3307 62 3111 63 3136 64 3098 65 3017 67 3069 43 1119 47 1144 51 1061 34 1173 35 1073 36 1135 37 1131 38 1136 40 1181 31 1120 32 1110 33 1162 30 1137 29 1136 78 2257 79 2416 80 2344 39 1130 41 1131 82 2314 83 2233 85 2243 84 2205 86 2168 87 2215 88 2090 89 2152 90 1995 93 2346 97 2312 68 2899 69 2737 71 2707 72 2627 73 2515 74 2526 75 2471 76 2422
8598 2.5607884123547455 -3.5106790886815946 31.49116191317388 98 111 126 1.9518193124411325 17 374 18 387 19 360 16 430 4 564 12 472 11 507
8809 0.67057887772862745 -4.2548377409900988 29.235608684570142 0 0 0 2.2035632371480234 7 4573 8 4332 19 4343 20 4416 3 4694 16 4445
8601 -1.0935622778156135 -2.8282402887557594 26.699991210595449 32 39 31 0.49697493954020089 8 596 9 576 10 526 17 2738 16 457 12 493 13 502 11 520
8603 -1.4500761628069043 -2.6961102009006739 25.687410872684918 46 55 32 1.2349045013803728 8 2923 16 470 1 3256 3 3195 15 5780 14 4698
8604 -1.087285082805528 -2.8128419238229294 27.131364144703344 33 41 26 0.82679366258875719 10 543 17 421 18 436 19 411 20 2861 16 477 21 404 22 407 23 2772 15 515
8605 -3.4880362534921461 -2.6810089500872589 27.608758057057617 152 162 136 1.8743002173477863 17 448 16 502 5 658 6 621 7 3063 10 569 12 522 14 538 15 536 11 556 9 613
8606 -3.4808935205436082 -2.7988335093479697 29.098395338767268 152 162 136 2.4444453356770142 17 449 5 659 6 622 29 402 35 365 38 389 32 408 10 568 31 407 9 612 1 713 11 555 12 521 24 390 16 503
8607 -0.9738676359293319 -2.5327387586676835 25.576441715487906 58 64 51 1.177035837731004 7 689 9 644 10 603 24 410 25 410 16 529 1 758 3 745 5 704 6 673 13 567 22 460
8608 -0.97384319211376247 -2.5322376076834212 25.576028437109052 58 64 51 1.2187931842000395 7 690 9 645 24 411 25 411 16 530 1 757 3 746 5 705 6 674 13 568 22 461
8609 3.7931743538680083 -3.4527897093604794 34.887401915191823 240 255 255 1.0714067052562077 24 391 25 394 16 531 21 427 15 573 12 560 11 597 3 732 1 737 2 719
9431 -1.518149604412373 -2.86453333111313 34.835222090705187 85 96 77 1.8381132565792291 8 726 9 730 10 692 17 567 18 611 15 687 3 814 5 763 7 765 19 567 4 761 11 683
8612 -1.7572508357068666 -2.3371640981236852 24.587013210453744 236 245 221 0.86084257377368245 25 444 16 567
8613 -7.322424363180426 -2.8371287166514323 34.542711809782858 140 163 117 1.5437153670256627 19 502 48 505 16 584 50 501 51 509
11831 4.6404449386519824 -1.119734721218951 34.375648338620181 5 12 5 0.76701530178591182 61 964 70 603 77 362 54 961 55 1003 56 992 57 1011 58 984 59 1005 60 1023 62 919 63 949 64 921 65 835 66 866 67 823 78 367 79 368 80 365 81 328 82 327 83 316 85 312 84 315 86 2088 87 2115 88 2000 89 2083 90 1912 91 1334 92 1356 93 1327 94 1340 95 1265 96 1320 98 2297 99 2234 100 1347 68 792 69 696 71 629 72 580 73 537 74 470 75 457 76 423
8614 6.373872179464092 -3.0291882840705564 34.998268707441575 105 112 65 2.3095913220659225 7 854 8 798 9 818 21 545 32 539 16 672 1 902 2 893 4 3273 6 800 26 528 37 528 15 732 13 728 12 717 11 761 27 571
9268 -0.81829884299481648 -2.9695035934874023 26.028341002679287 46 58 36 0.60486717084115105 8 6378 9 6487 10 6398 16 6513 5 6598 6 6422 7 6627 15 6587 14 6683 13 6573
8615 -1.0684239693738609 -2.0420960139043598 25.907449477899995 157 165 141 1.0758973092034425 8 820 9 835 10 796 16 710 5 878 6 837 9 842 14 742 13 752 12 751 11 788
8761 -0.9863067929502326 -0.53542969010746977 24.974490558740083 177 195 171 1.6554750121940383 17 1171 22 1189 16 3498 13 1302 11 1307
8616 4.8787595239412109 -2.772447718425457 34.50220867937584 49 55 50 1.8735281190295332 19 620 24 2999 25 2990 16 715 13 3112
9278 -7.0502615140503213 -0.19175249888525595 42.950521564261223 191 196 158 1.8043640554686065 21 8514 22 8661 23 8542 24 8632 25 8539 16 8403 26 8592 27 8792 15 8492 28 8644
8617 -6.5881521208479796 -2.1578015330953111 32.351980646698642 197 212 169 1.1196301134130964 8 816 10 793 9 838 1 956 7 869 3 922 5 872 6 832 14 755 13 761 12 756 11 794
11320 -6.3657318683890658 4.0592969106499934 32.515864782758968 0 0 0 1.1284287074892085 2 4435 3 4471 4 4367 5 4281 6 4132 7 5538 8 5298 13 5492 1 4574
9946 0.021265843749235003 -0.71235832748184225 25.982415826644921 95 105 79 1.3305553913832073 56 3401 57 3339 59 3283 62 3065 63 3097 64 3056 60 3272 65 4428 66 3151 67 3016 61 3263 58 3218 55 3446 54 3389 53 3439 46 1107 44 1137 19 1092 8 1324 18 1172 2 1417 7 1372 10 1280 17 1123 47 1116 45 1081 20 1154 21 1133
8619 -1.0258226566892119 -1.7744085485369092 26.529033040726784 182 192 157 0.64232442259641676 8 3151 9 3160 10 3005 17 748 18 792 16 816 1 3494 2 3399 3 3414 4 3357 5 3261 6 3174 7 3300 15 857 14 3204 13 3186 12 3132 11 3123
9439 -0.16129883718461369 -1.6197372904780565 26.206802276946 57 59 58 1.34618930461716 10 952 21 789 15 925 2 1113 22 785 25 737 4 1069 6 985 11 964
8620 -0.99565043296974487 -1.7450538362696741 25.889462317768082 157 171 136 0.95028127737223955 9 927 21 727 23 665 25 685 16 817 1 1066 3 1049 4 1004 5 981 6 928 15 3154 14 853 12 867 11 896
9276 -7.2864900447913579 0.65383013854368299 43.560255920725119 56 60 43 1.033839252329551 17 7966 18 7995 19 8019 20 8144 21 8118 22 8266 23 8148 24 8262 25 8147 16 8035 26 8221 27 8401 28 8248
8625 -2.998532061370363 -1.9237019887977693 45.042588510002489 237 247 255 1.0698510045336933 18 965 19 895 21 914 22 899 24 846 25 849 16 981 26 859 14 1033
8709 -2.4445758033055784 4.3444433304583736 36.894377193172744 116 111 92 2.2675550542784864 19 2269 20 4257 23 4173 25 4266 16 2367 7 2455 8 2366
8631 -3.0527736707926918 -1.7743798547875962 46.29599081606306 177 184 147 1.977162993999366 16 1044 27 975 15 1070 31 929 14 1085 28 944 47 976 48 962 49 953 50 924 51 920 13 1071 44 992 45 950 46 979 52 964 32 936 12 1096 11 1082 10 1090 39 935 40 991 41 918 42 975 33 946 9 1118 5 1145 7 1166 8 1118 4 1171 34 953 38 957 2 1194 6 1098 3 1238 1 1238
8713 -1.3728364020670083 -4.3243736038845064 27.67913205309527 187 191 177 0.74449467239582423 7 191 9 2621 10 2435 17 2378 18 2494 19 9 16 2553 2 253 3 243 5 2686 6 2625 15 4378 14 4458 13 2547 12 2535 11 2533
8633 -2.8953270488784826 -1.6327627647268745 45.361226235098023 183 193 170 1.7056778873148053 17 981 18 1032 19 960 20 998 21 981 22 969 23 910 24 910 25 925 16 1053 26 923 15 1085 14 1102 27 990 28 959 29 3359
8634 3.4686207815098693 -1.4889363252257166 33.928915224023569 140 140 104 0.85597645945137213 7 3485 8 3338 9 3347 10 1145 17 983 18 1024 19 944 16 1057 1 3680 2 3577 3 3586 4 3544 5 3444 15 1088 14 1118 13 1105 13 1106 12 1136 11 1126
8635 5.6467967163687831 -1.5328029347494585 34.303996610849708 100 108 87 1.1551325091985549 9 1211 22 3262 23 876 16 1063 18 3259 20 3256 29 3332 28 3341 35 3287 36 3238 11 3331 3 3592 4 1238
8636 -4.0148437580135816 -1.067875586731591 28.902244478968491 128 131 114 1.4030366382025485 8 1171 16 1065 4 1218 5 1201 6 1154 7 1215 2 1266 3 1295
8637 -7.0058134806762338 -1.3038621438710636 40.814143521803373 72 66 52 1.9416313610782365 8 3326 9 3336 10 3191 19 974 16 1071 7 3470 6 3342 15 1105 14 1123 13 1101 12 3290 11 3315
10022 -5.8425179932898619 2.6070377892828112 31.633211750603177 75 77 63 1.6351087903423849 7 2243 8 2162 9 2186 10 2039 3 2355 6 2177 1 2402 2 2305 4 2227 5 2238 14 2209 11 4017 15 2189
8640 -4.07814405405116 -1.0254373852501868 46.564235501812711 73 79 76 1.7470417004059351 17 1110 32 1081 16 1185 31 1095 34 1133 15 1219 14 1223 13 1205 12 1216 11 1213 20 1137 43 1118
8641 3.8179833137829964 -0.97439824802359543 34.38916565496244 219 226 194 0.6365200776852814 8 1323 20 1134 21 1115 16 1204 23 1047
8642 1.242023744535848 -0.81279395492657447 29.255545387858714 247 254 242 1.4150936314011653 8 1318 9 1314 10 1278 19 1085 20 1138 21 3403 16 1206 2 1401 1 1444 12 1260
16161 4.5098353575630235 -2.0903839127369119 35.270282398036002 226 242 255 0.7267227735535724 95 2128 96 2190 98 2222 99 2150 98 3023 100 2194
15440 7.4794096455770038 1.4719150242466905 32.96194780704775 90 98 61 1.5349367588435034 91 1716 95 1606 96 1673 94 2654 97 1712 100 1687
8643 -0.34304869701890472 -0.53399645163125575 25.669645454886446 181 200 196 1.2933355850806454 9 1370 10 3327 17 1176 19 1146 23 1121 16 1254 3 5218 5 5008 6 3484 7 3597 4 5102 13 1311 12 1304 11 1322
10030 -3.4409392160614432 -2.7524188834536178 27.860059894275075 107 119 81 1.7994481520955845 15 2929 18 2861 14 2968 5 4663 6 4508 13 2918 12 2898 2 4849 1 4967 11 4540
8793 -3.8726489724641926 2.570010351682853 37.610411762165178 159 169 139 1.2735150611852002 17 3887 18 3964 19 3959 20 4027 21 4034 22 4055 23 3935 24 4118 25 4048 16 4060 26 4049 15 4033 14 4126 13 4034 12 2036 11 2019
8797 -5.9853827317565553 2.5472538145892418 31.046620380278348 255 255 241 1.4948637539141578 9 2178 17 3939 8 2157 10 2035 7 2238 16 4105 15 4079 6 2174 3 2353 4 2223 14 2205 13 2156 12 2129 11 2108
15148 -3.884004042802832 2.4662004939230897 39.668331441158777 149 155 121 1.2229327399670886 91 803 92 1813 93 1796 94 1822 95 1725 96 755 97 837 98 1802 99 811
8654 -6.0026129054458126 -0.13573769512198741 41.320027752699126 48 51 42 1.4724696304889378 9 3528 25 3561 16 1403 32 3549 34 1341 35 1254 36 3499 15 1424 12 3497
8865 -3.2964074502828637 3.4665886944074846 36.940332240541544 172 179 145 1.4059641262407436 17 5265 19 5358 20 5469 21 5463 24 4245 25 4168 16 5379 26 4175 15 2294 14 4262 13 5424 12 4042 10 4013 11 4096
8656 6.2362019543433611 -0.33049658881896526 34.806269203640468 50 53 43 1.3288098078095636 8 1512 17 1320 22 5125 16 1440 9 1508 10 1459 23 4976 7 1583 15 3570 14 3644 13 3579 12 1443 11 1442 20 3531
15152 -0.51313375614297818 2.4826164897358569 36.773030017396529 187 195 146 1.2490316896944884 91 815 92 796 93 825 95 763 96 777
8658 5.1884436281661133 -0.12914074788103469 34.084998915527066 213 212 194 0.53352389376180287 17 1355 18 1427 19 1373 21 1415 32 1315 16 1477 13 1503 11 1493
15450 3.1785039406067477 -0.0099995996088432619 34.270514259328884 238 248 211 1.7139531631580631 92 2417 93 2425 94 2495 95 3085 96 3209 91 1537 89 607 90 618 97 3098 99 3606 98 3735 100 4098
15147 3.6508691483101003 2.0609922549891633 33.256925250799249 117 121 88 1.2564045033543714 92 762 96 742 93 789
8661 -3.8224403491457881 0.13872705185349918 29.144246154828906 21 27 17 2.228859463729076 24 1335 16 1497 19 1410 21 1467
15167 5.4127030643643241 -2.0876170451836566 34.784303003928457 215 242 253 1.0551629489594458 91 1198 92 99 93 1208 94 1194 95 1139 96 1197 97 1233 98 159 99 158 100 1220
8665 -0.26186608246724741 0.17129135502595466 24.668180395405834 74 77 60 1.3907641793555487 17 1445 18 1517 19 3587 20 3674 22 1493 16 1558 21 3681 15 3669 23 5051 26 5204 14 1600 27 3813
8667 -3.1430317036971571 0.28228247383239524 28.727150425890027 118 134 97 1.7336147748520858 48 1510 16 1561 15 1583 14 1593 13 1562
8877 3.4229690092820095 -3.0311035642499653 34.012198213170045 230 251 255 1.463433991715154 7 5818 8 5590 9 5697 10 5622 17 5644 18 5712 19 5736 16 5771 3 5960 4 5850 14 5906 13 4670 12 4539 19 4587 11 4609 2 4910
8669 -5.4547414483780763 0.567438877106475 41.212986105813435 97 100 80 1.1850701507163472 17 1453 18 1520 19 1472 20 3683 22 3672 24 1406 25 1447 16 1570 21 3688 26 1446 32 3681 33 1499 34 3632
8670 5.8152448142371416 0.1891815157115711 34.017196407588209 58 59 43 0.85545103806951739 25 3659 32 1410 16 1572 19 3583 20 1515
10045 -4.1895803880574203 -0.9963346437605457 29.177489338377136 83 85 83 1.6159481621224658 5 3456 15 3357 16 3377 19 5912 14 3419 4 3564 6 4759 20 6015 3 3602 2 3591 1 3701 13 3377
8817 2.6449276525796495 -4.046635249731743 30.791423303171381 102 110 95 1.9581014165990733 9 4478 10 2637 18 5584 16 4507 4 2967 15 4524 12 2731
8672 -5.6380276106693792 0.74726260152722979 42.853090977233578 180 187 154 0.81405148168612218 10 1580 18 1557 20 1560 21 1598 16 1610 1 1814 2 1763 3 1807 4 3867 5 1686 6 1639 7 1698 8 1629 9 1645 23 1477 15 1625 14 1633 13 1610 12 1580 11 1566
8676 -4.8210451717131768 1.0654251544199311 43.113105025423856 159 163 136 1.1506917031852768 22 1684 24 1559 25 1599 16 1713 26 1602 27 1723 28 1646 40 1706 15 1732 14 1740 13 1700 12 1679 10 1662 8 1732 5 1789 7 1803 1 1910 2 1858 3 1898 4 1780 11 1653
8825 -1.2293358547962847 -2.4206846944126501 25.833520398099175 255 255 252 1.1431999955353149 10 4526 18 4534 16 4650 9 5677 3 5940 6 6493 7 6696 8 6443 4 6763 5 6668 15 4680 14 4745 13 4634 12 4512 11 4587
8680 -0.055636242286672868 0.56410661891899772 24.768637375580656 168 173 144 1.3925796455861785 16 1755 1 1978 2 1928 5 1859 6 1819 8 1795 9 1797 10 1719 3 1965 4 1848 7 1888 15 1782 14 1777 13 1755 12 1730 11 1711
8681 -0.71683171785323641 1.0202009802353202 34.883665886482873 157 160 149 1.3828536071328967 25 1662 16 1780 20 1724 24 3848 26 3804 19 1690
8682 -4.5995473644252378 1.4842617433825933 40.551255705962149 153 158 128 1.0856606563039912 20 1762 21 1826 22 1772 23 1686 24 1671 25 1713 16 1817 19 1733 26 1708 28 1765 29 1759
8683 -6.2318967073294358 1.7380558641123702 45.281811023950937 66 69 38 0.71461134826757722 17 1696 22 1783 25 1726 32 1722 16 1829 18 1774 26 1716 33 1802 36 1772 41 1773 13 1826
8687 7.0906127861824064 1.3053360749360343 33.745469707227961 66 62 50 1.4711562077106144 25 1757 16 1901 15 1938 14 1933 8 3852 9 1952 13 1927
8688 7.1914343784150434 1.3709102514718954 33.525333750407633 76 74 53 1.3451655372456068 23 1751 16 1914 31 1814 87 930 78 948 79 1027 83 949 85 931 86 941 67 1544 64 1667 57 1793 88 2445 89 881 90 2340 71 1268 72 1211 76 1062
8689 -0.78745028787559668 1.7487396341653196 35.469231179413811 95 93 78 0.71514477924978126 48 1880 16 1934 49 3867 50 3794
8690 3.5653808945368231 1.5830782904710838 33.668136467642746 87 96 67 1.2441807705373342 8 1977 21 1954 16 1948 6 2007 14 1981 13 1969 12 1921
8773 -0.48308482550025711 0.20730950457566791 23.787187754635557 64 64 49 1.6825141291226977 17 4958 18 3601 20 3687 22 1509 16 3709 21 5144 14 3756
8692 -6.368384025649223 1.8884112347717186 31.820237167946782 144 164 118 1.1756973085089828 8 2006 9 2010 20 1932 16 1993 15 2029 14 2015 11 1939
11847 2.7655727446511968 -0.26467840693874861 34.112994559572897 68 70 65 0.59289869045146804 61 1250 77 599 58 1237 59 1274 60 1293 62 1169 78 621 80 613 81 586 76 690
8694 -6.0561068458296177 2.896362349359193 45.584569137165367 108 113 90 0.57956445737607265 17 1898 32 1944 16 2036
8777 0.33584151537108353 0.37977737884727519 24.235816990568811 75 80 53 2.4306978709041394 17 3598 20 3752 16 3762 7 1815 18 3662 19 3655 21 3740 14 3817 9 3736 22 3729
8696 -4.9063238547445973 3.0594298225337409 44.660743698414535 137 143 108 2.1457215227241702 24 1927 25 4049 16 2064 23 1928 26 5446 27 5683 22 2025 28 5534 29 5424 30 4050 31 5439 13 2072 9 3984 15 2100 7 4130 8 5141 10 5172 12 5204 11 2017 20 2006 17 1933
8700 7.4259376353176405 2.1627175051406802 33.091552548260147 70 66 38 0.91392706498857501 48 1990 16 2081 51 1931
11330 -0.97770270760975531 -1.7666184067032045 27.670028284022251 30 34 27 1.5347696735317831 3 5050 4 5933 6 5701 7 5907 8 5656 9 5771 10 6579 12 5736 13 6726 11 5824 1 3515 2 3419 5 5842
8701 3.9555769374676633 2.4634060479741509 33.485982536933143 49 54 35 1.2464532450587422 20 2060 24 1962 25 2025 16 2125 15 2167
8704 -3.5454758512078661 3.1430732085973667 37.847354275516402 255 253 255 1.5264809451346049 17 2017 18 2119 19 4034 20 4113 21 4097 24 2041 25 4120 16 2177 22 4148 23 4011 26 4132 15 2214 14 2233 13 2176 12 2153
8706 -6.8430570153157984 3.926690658207066 34.601659731229255 236 231 219 2.1502400256137624 17 2189 18 2297 50 2263 16 2341 54 2371 55 2425 15 2378 52 2370 53 2430 56 2411 14 2396
8707 -4.5776383946904931 4.1046577851249282 35.281068513302934 83 88 58 2.1195683991948742 18 2320 24 2242 23 2208 25 4256 26 4241 27 4450
8710 -6.1508408626948503 4.1553067168223246 34.642535028666309 179 189 152 1.2775968924649905 17 2218 18 2331 24 2262 16 2373 15 2410 12 2352
8712 -1.5423216559378232 -4.2447196876007585 27.013191803897943 52 50 32 0.48915912511852649 8 171 17 2369 16 2543 2 251 6 197 18 2485 15 47 11 88
8715 -1.4296303467205815 -3.8957790628420428 27.438231507311979 251 255 250 1.3038744392460919 9 248 10 232 17 2499 18 2611 16 2656 13 182 14 196 15 179 12 197 11 201
16259 7.0778268856499054 1.4171658504455382 33.125024942165467 80 94 79 0.98855969118511278 94 5174 99 4840 100 4882
8720 -0.59952093410266805 -3.756446047898367 27.454642120513327 29 35 19 1.2431989319871841 7 2864 8 2741 16 2699 1 3028 2 2940 3 4726 4 2917 5 2815 6 2734 9 2763 15 2717 14 2764 13 2713 12 2670 11 2678 25 114
10119 -6.5208659752185509 1.8217815941707187 31.81715769549951 220 228 209 1.699377911394937 6 2017 7 2081 8 1991 9 1990 10 1887 15 5351 17 5149 21 5335 14 5377 3 2201 4 2075 13 3972 5 2071 12 1935 11 1923
8724 -1.4997095910249094 -3.3139524250743637 27.224315499313825 39 51 15 2.0950315698880089 8 449 19 2683 16 2794 3 524 6 456 7 458 9 407 6 466 15 366
8727 -1.4573441133015963 -2.8477690451032127 25.785170547034483 48 56 35 1.3174369466638529 9 531 17 371 16 2869 14 2919 2 3129 13 449 11 483 20 2813
8728 1.5829825527806183 -3.7804376490458895 34.505057176781001 255 255 251 1.3740048551601896 9 526 10 2727 17 2712 18 2813 19 2759 16 2875 5 2976 6 550 4 3065
8730 3.0428994451588252 -3.3738544301327034 31.281088567127231 0 0 0 1.3623045601228854 9 2942 17 410 18 2840 4 626 41 330 39 353 40 2987 42 356
8739 -2.4964682879733107 -2.2440221306969415 35.646194281602305 87 89 81 0.68144630895341185 7 4871 9 4741 17 2987 16 3166 4 3335 5 3224 6 3143 8 4632 10 4622 1 3465 2 3371 3 3392 14 3193 13 3171 12 3118 11 3107
8740 1.5982954140169516 -2.2946342188338069 34.667561642842337 88 84 80 1.6186548034621924 25 3082 16 3172 27 3241 28 3173 29 3165 14 4876 10 4637 8 4642 7 4885 13 4757 9 4757 5 4826 12 4623 11 4699 6 5690
10065 -5.3503400141096913 0.83527679924952514 42.649641271131465 233 240 196 0.98787553406361706 6 4995 7 5229 8 4972 9 3688 10 3558 15 3715 16 3742 17 1516 18 1601 14 3792 1 5423 2 5332 3 5342 4 5238 5 5134 19 1553 13 3705 12 3645 11 3669
9408 -0.93140872169524191 -0.072372215264505324 26.000889695752537 212 207 211 2.374669844322375 17 8348 22 8521 16 8410 15 8497 14 8578 23 8392 24 8239
8742 -1.3035131215330311 -2.0553007797990976 35.001282565448868 119 123 72 1.4137632075393909 10 3044 18 3128 20 3122 16 3216 6 3187 1 3511 3 1069 4 1015 7 1002 14 3255 13 3224 12 3169 11 3164
8746 -6.4641282715242934 -1.7892628676585662 38.304073076181979 90 100 66 1.4834455734681766 8 3214 17 855 18 3177 19 3158 20 3164 21 4840 23 3095 16 3270 7 1054 9 1015 22 4890 6 995 5 1058 1 3559 4 1080 2 1116 3 3471 15 3239 14 973
10079 -6.6400811710672629 2.0048761368115779 33.573338778462578 192 201 184 1.33137804933112 6 3878 7 4083 9 3932 10 3849 3 4233 5 4019 41 4024 43 3964 40 4189 42 4111 13 3980 12 3904 11 3913
8748 -0.71518759288791878 -1.3651720657398929 25.590743179110753 253 255 255 1.2627566422988032 8 3271 9 3272 10 3125 17 3086 18 3196 19 3170 20 3177 21 3213 22 3203 23 805 16 3283 1 3627 2 3522 3 3529 4 3481 5 3374 6 3292 7 3411 24 806 15 3261 14 3313 13 993 12 3236 11 1033
9423 -1.3412544242445483 -3.5110621805129241 26.322214179375269 164 172 135 1.4800596924480729 6 384 7 370 8 368 9 324 10 293 15 244 3 446 4 397 5 400 2 2967 13 234 12 257 11 273
8749 -0.53059848418240918 -1.3890476282763284 26.109542728228313 251 255 252 1.2925730865890439 8 1071 10 1046 17 3087 6 1068 7 1127 9 1084 16 3285 15 3264 14 1008 13 998 12 1025 11 1038 18 4734 19 4766
9416 -4.4114154124488163 -4.529897026545207 30.671517448124359 242 248 252 0.90769748177216059 6 198 15 78 7 2721
8750 -3.1084751853418009 -1.989928119613424 46.152453202735686 184 201 209 1.8058625581193029 9 3268 10 3121 17 3111 48 890 16 3303 3 1196 7 3400 8 1064 45 895 46 912 47 932 49 883 50 861 4 1125 5 3358 51 3129 2 3500 1 3600 14 3326
16291 -3.2094285542683894 3.3348315812804414 39.244625429806767 75 81 46 2.0610823488595686 35 5507 98 2739 33 5525 34 5453 57 4111 88 2692 66 3917 67 3759 62 3860 63 3888 59 4056 64 3787 65 3698 58 3989 60 5255 61 4054 90 3553 91 2770 92 2725 93 2730 89 2729 94 2819 95 2659 96 2722 97 2678 68 3573 69 3393 99 2645 1 5634 5 5351 4 5447 3 5543 6 5223
14546 4.3241698687440007 -1.5233212898304005 32.476805391725534 243 255 255 1.7165036271962402 86 1995 88 1917 90 3045 91 2279 92 2241 93 2235 70 2547 78 236 79 230 82 2138 83 2057 85 178 87 175 80 2163 84 2035 84 188 89 3242 68 2725 69 2524 66 3002 72 2435 73 2314 74 351 75 330 76 281
8752 -7.0069966635027017 -1.4399383884092705 38.807513338708922 208 207 187 1.4384934353645422 8 4712 9 4833 10 4721 17 3135 18 3244 19 918 20 957 16 3318 3 5099 7 4952 2 5075 15 3304 14 3357 13 4885 12 4727 11 4802
8755 -3.8546705552966714 -1.0864159800689481 28.597867010598311 145 150 128 1.3686194097099069 8 1162 10 1126 17 3164 16 3353 4 1215 5 1193 6 1150 7 1209 3 1290 14 3385 13 3357
8756 -2.9078124692935963 -1.5055919328607201 45.494101627799189 179 188 158 1.5461131774904557 17 3180 18 3287 19 3275 20 3284 21 3327 22 3299 23 3197 24 3289 25 3319 16 3373 26 3324 27 3462 28 3382 15 3354 14 3407
8759 0.95449926992120893 -0.8034965391212594 28.467966204427285 120 132 110 1.7411439106639186 8 1312 10 3285 17 3256 19 3338 20 3372 16 3455 2 1405 4 1353 5 1360 7 3547 14 3500
